# .PCD v0.7 - Point Cloud Data file format
VERSION 0.7
FIELDS x y z
SIZE 4 4 4
TYPE F F F
COUNT 1 1 1
WIDTH 1686
HEIGHT 1
VIEWPOINT 0 0 0 1 0 0 0
POINTS 1686
DATA ascii
-0.491 -58.714001 38.004002
0.259 -58.735001 37.558998
1.008 -58.747002 37.310001
1.758 -58.762001 37.001999
2.507 -58.779999 36.647999
3.256 -58.799 36.27
3.9990001 -58.819 35.935001
4.7410002 -58.834999 35.671001
5.4829998 -58.852001 35.41
-33.202 -58.242001 34.022999
-32.438 -58.226002 34.306
-31.671 -58.203999 34.660999
-30.913 -58.185001 34.963001
-30.158001 -58.167 35.272999
-29.400999 -58.145 35.651001
-28.643 -58.122002 36.056
-27.885 -58.099998 36.484001
-27.141001 -58.098 36.540001
-26.384001 -58.077999 36.952
-25.635 -58.062 37.255001
-24.879999 -58.035 37.793999
-24.125999 -58.011002 38.294998
-23.365 -57.977001 39.049
-22.604 -57.944 39.807999
-21.855 -57.917 40.5
-21.108 -57.887001 41.257
-20.365 -57.873001 41.688999
-19.615 -57.838001 42.493999
-18.868999 -57.813999 43.034
-18.124001 -57.794998 43.433998
-17.370001 -57.749001 44.290001
-16.622999 -57.723 44.737
-15.886 -57.712002 44.965
-15.136 -57.646 46.164001
-14.367 -57.509998 48.646999
-13.618 -57.431 50.195999
-12.896 -57.452 49.948002
-12.194 -57.546001 48.327999
-11.49 -57.634998 46.737999
-10.772 -57.700001 45.560001
-10.048 -57.745998 44.638
-9.3149996 -57.763 44.285
-8.5799999 -57.771 44.095001
-7.8449998 -57.776001 43.939999
-7.1090002 -57.779999 43.806
-6.3759999 -57.794998 43.404999
-5.6490002 -57.834999 42.292999
-4.9200001 -57.868 41.249001
-4.1890001 -57.880001 40.727001
-3.4560001 -57.903999 39.817001
-2.721 -57.932999 38.903999
-1.9859999 -57.949001 38.377998
-1.239 -57.971001 37.803001
-0.48800001 -57.993999 37.27
0.26199999 -58.008999 36.969002
1.011 -58.019001 36.765999
1.761 -58.042999 36.264
2.5090001 -58.050999 36.134998
3.2579999 -58.066002 35.853001
3.9990001 -58.081001 35.620998
4.7389998 -58.101002 35.299
5.48 -58.118 35.033001
6.2220001 -58.146999 34.513
-33.974998 -57.52 33.548
-33.214001 -57.507999 33.762001
-32.452 -57.493999 34.012001
-31.690001 -57.48 34.263
-30.924999 -57.450001 34.743999
-30.166 -57.424 35.183998
-29.403 -57.391998 35.75
-28.638 -57.356998 36.394001
-27.878 -57.330002 36.909
-27.132 -57.327 36.994999
-26.365 -57.290001 37.745998
-25.613001 -57.268002 38.194
-24.871 -57.261002 38.334
-24.118999 -57.237999 38.827999
-23.355 -57.199001 39.709
-22.606001 -57.175999 40.266998
-21.860001 -57.151001 40.897999
-21.113001 -57.123001 41.598999
-20.368999 -57.105999 42.070999
-19.617001 -57.066002 42.963001
-18.871 -57.043999 43.452999
-18.115 -56.992001 44.438999
-17.353001 -56.923 45.671001
-16.598 -56.875 46.453999
-15.82 -56.736 48.861
-13.583 -56.466999 54.310001
-12.856 -56.492001 53.946999
-12.134 -56.535 53.248001
-11.421 -56.602001 52.113998
-10.713 -56.688 50.729
-10.002 -56.765999 49.473
-9.3009996 -56.917 46.445
-8.5839996 -57.021999 44.126999
-7.849 -57.036999 43.749001
-7.112 -57.041 43.629002
-6.3779998 -57.050999 43.332001
-5.651 -57.091 42.181
-4.9219999 -57.118999 41.27
-4.191 -57.132 40.724998
-3.4579999 -57.155998 39.780998
-2.7219999 -57.191002 38.717999
-1.985 -57.210999 38.071999
-1.237 -57.235001 37.438
-0.486 -57.258999 36.882
0.26499999 -57.283001 36.362
1.015 -57.299999 35.999001
1.7640001 -57.314999 35.709
2.513 -57.327 35.487
3.2620001 -57.342999 35.168999
4.0009999 -57.356998 34.999001
4.7399998 -57.374001 34.737
5.4790001 -57.390999 34.481998
6.2179999 -57.41 34.205002
6.9569998 -57.425999 33.983002
7.697 -57.452 33.553001
8.441 -57.474998 33.185001
-34.737 -56.780998 33.349998
-33.984001 -56.782001 33.341
-33.222 -56.766998 33.625
-32.462002 -56.756001 33.825001
-31.702 -56.747002 33.998001
-30.934999 -56.712002 34.577
-30.166 -56.667999 35.326
-29.382999 -56.601002 36.534
-28.606001 -56.547001 37.564999
-27.846001 -56.52 38.123001
-27.069 -56.466999 39.198002
-26.312 -56.446999 39.682999
-25.573 -56.445 39.757999
-24.837999 -56.448002 39.717999
-24.091999 -56.431999 40.106998
-23.353001 -56.424999 40.320999
-22.610001 -56.405998 40.779999
-21.865 -56.384998 41.286999
-21.122 -56.370998 41.657001
-20.372 -56.338001 42.462002
-19.622 -56.306 43.191002
-18.865999 -56.255001 44.226002
-18.087999 -56.139999 46.355
-17.312 -56.035 48.160999
-16.531 -55.900002 50.389999
-15.038 -55.666 55.161999
-14.301 -55.640999 55.768002
-13.566 -55.636002 55.976002
-12.833 -55.639999 55.998001
-12.101 -55.650002 55.893002
-11.376 -55.681 55.408001
-10.659 -55.731998 54.653999
-9.941 -55.778 54.022999
-8.5530005 -56.068001 48.941002
-7.8499999 -56.273998 44.147999
-7.1139998 -56.289001 43.764
-6.3790002 -56.298 43.515999
-5.6529999 -56.333 42.5
-4.9239998 -56.362 41.549999
-4.1939998 -56.374001 41.028
-3.4619999 -56.384998 40.491001
-2.727 -56.41 39.523998
-1.989 -56.438999 38.632999
-1.242 -56.458 38.108002
-0.48899999 -56.490002 37.330002
0.264 -56.523998 36.528999
1.016 -56.555 35.833
1.768 -56.583 35.222
2.5179999 -56.605 34.771999
3.267 -56.619999 34.505001
4.0029998 -56.627998 34.455002
4.7399998 -56.645 34.233002
5.4780002 -56.660999 34.014
6.2150002 -56.675999 33.839001
6.9530001 -56.695999 33.542
7.6919999 -56.717999 33.235001
8.434 -56.737999 32.960999
9.184 -56.754002 32.784
-34.749001 -56.049 33.259998
-33.995998 -56.049999 33.215
-33.235001 -56.035999 33.437
-32.478001 -56.028999 33.526001
-31.716999 -56.014999 33.747002
-30.951 -55.98 34.313
-30.156 -55.889999 35.921001
-29.355 -55.791 37.747002
-28.59 -55.752998 38.492001
-27.826 -55.719002 39.216999
-27.059999 -55.678001 40.101002
-26.315001 -55.669998 40.389999
-25.576 -55.665001 40.580002
-24.837999 -55.662998 40.696999
-24.099001 -55.655998 40.905998
-23.360001 -55.653 41.042999
-22.618999 -55.643002 41.303001
-21.878 -55.634998 41.532001
-21.138 -55.631001 41.685001
-20.388 -55.596001 42.463001
-19.629999 -55.540001 43.591999
-18.843 -55.403 46.181
-18.042999 -55.230999 49.216999
-16.511999 -54.944 54.535
-15.769 -54.880001 55.879002
-15.031 -54.854 56.518002
-14.294 -54.834999 57.009998
-13.558 -54.834 57.141998
-12.822 -54.830002 57.32
-12.087 -54.832001 57.382
-11.354 -54.841 57.313999
-10.63 -54.868 56.978001
-9.9049997 -54.890999 56.727001
-9.1820002 -54.917 56.416
-8.4639997 -54.964001 55.736
-7.1269999 -55.513 44.528
-6.3969998 -55.542999 43.751999
-5.6700001 -55.569 42.997002
-4.9400001 -55.599998 42.021
-4.2080002 -55.609001 41.602001
-3.474 -55.619999 41.077
-2.7409999 -55.620998 40.862999
-2.006 -55.619999 40.672001
-1.263 -55.620998 40.543999
-0.51599997 -55.623001 40.43
0.23199999 -55.630001 40.145
0.99599999 -55.719002 37.911999
1.761 -55.824001 35.403999
2.5150001 -55.875 34.273998
3.266 -55.904999 33.652
4.006 -55.914001 33.618
4.744 -55.917999 33.681
5.4840002 -55.93 33.582001
6.2249999 -55.946999 33.365002
6.9660001 -55.965 33.136002
7.7059999 -55.980999 32.953999
8.4490004 -55.993999 32.821999
9.1960001 -56.012001 32.625
-35.514 -55.320999 33.205002
-34.757999 -55.314999 33.233002
-34.004002 -55.312 33.205002
-33.247002 -55.304001 33.278
-32.495998 -55.306 33.157001
-31.73 -55.280998 33.528999
-30.948 -55.215 34.650002
-30.134001 -55.089001 36.960999
-29.337 -54.993 38.807999
-28.575001 -54.959999 39.476002
-27.815001 -54.921001 40.381001
-27.066 -54.896 41.026001
-26.322001 -54.888 41.237999
-25.580999 -54.877998 41.557999
-24.843 -54.879002 41.606998
-24.105 -54.880001 41.657001
-23.367001 -54.882999 41.657001
-22.628 -54.880001 41.782001
-21.889999 -54.881001 41.811001
-21.152 -54.883999 41.830002
-20.396999 -54.838001 42.766998
-19.598 -54.662998 46.018002
-17.986 -54.146999 55.660999
-17.238001 -54.087002 56.837002
-16.499001 -54.077 57.023998
-15.761 -54.063 57.398998
-15.024 -54.046001 57.870998
-14.287 -54.040001 58.09
-13.553 -54.046001 58.083
-12.816 -54.041 58.285
-12.082 -54.050999 58.202
-11.35 -54.063 58.056
-10.621 -54.077999 57.937
-9.8920002 -54.091 57.845001
-9.1680002 -54.120998 57.424
-8.4440002 -54.148998 57.063
-7.7210002 -54.179001 56.679001
-6.408 -54.735001 45.394001
-5.684 -54.794998 43.782001
-4.954 -54.830002 42.702999
-4.2210002 -54.848 42.061001
-3.4860001 -54.855999 41.625999
-2.7490001 -54.862999 41.182999
-2.013 -54.860001 41.094002
-1.272 -54.856998 41.123001
-0.528 -54.854 41.215
0.21600001 -54.852001 41.255001
0.95999998 -54.852001 41.256001
1.714 -54.881001 40.032001
2.507 -55.106998 34.673
3.2639999 -55.169998 33.296001
4.006 -55.178001 33.280998
4.7480001 -55.186001 33.261002
5.4899998 -55.194 33.250999
6.2350001 -55.216999 32.911999
6.9780002 -55.23 32.789001
7.7199998 -55.243999 32.675999
8.4639997 -55.259998 32.5
9.2089996 -55.278999 32.259998
9.9519997 -55.285999 32.289001
-35.526001 -54.591999 33.115002
-34.771999 -54.587002 33.078999
-34.015999 -54.580002 33.07
-33.264999 -54.580002 32.941002
-32.508999 -54.571999 32.960999
-31.742001 -54.544998 33.335999
-30.934999 -54.431999 35.365002
-30.091 -54.248001 38.868999
-29.319 -54.195 39.932999
-28.57 -54.169998 40.551998
-27.816999 -54.130001 41.497002
-27.07 -54.112999 41.903999
-26.326 -54.102001 42.167999
-25.584999 -54.096001 42.377998
-24.851 -54.109001 42.150002
-24.115999 -54.122002 41.972
-23.377001 -54.123001 42.008999
-22.632999 -54.108002 42.386002
-21.886999 -54.085999 42.858002
-21.139 -54.057999 43.410999
-19.483 -53.457001 54.612
-18.729 -53.383999 56.042
-17.979 -53.330002 57.125999
-17.236 -53.305 57.646
-16.495001 -53.292 57.926998
-15.757 -53.278999 58.287998
-15.021 -53.271999 58.542999
-14.285 -53.269001 58.723999
-13.55 -53.273998 58.747002
-12.815 -53.273998 58.858002
-12.081 -53.282001 58.796001
-11.348 -53.292999 58.692001
-10.617 -53.305 58.601002
-9.8850002 -53.316002 58.511002
-9.1560001 -53.334999 58.283001
-8.4300003 -53.361 57.928001
-7.7059999 -53.390999 57.514999
-6.9889998 -53.438 56.778999
-5.691 -53.973 45.911999
-4.9650002 -54.028999 44.348999
-4.2319999 -54.060001 43.387001
-3.497 -54.077 42.73
-2.7590001 -54.084999 42.310001
-2.0220001 -54.084 42.234001
-1.2819999 -54.083 42.145
-0.53899997 -54.083 42.07
0.20200001 -54.080002 42.138
0.94400001 -54.077999 42.181999
1.689 -54.087002 41.727001
2.4590001 -54.188 38.605999
3.2490001 -54.376999 34.265999
4.0009999 -54.410999 33.655998
4.7490001 -54.435001 33.278
5.4959998 -54.452999 33.046001
6.244 -54.479 32.637001
6.9899998 -54.493 32.519001
7.7350001 -54.507 32.394001
8.4790001 -54.525002 32.188999
9.2200003 -54.536999 32.09
9.96 -54.541 32.187
-35.540001 -53.867001 32.964001
-34.785 -53.858002 32.932999
-34.029999 -53.852001 32.876999
-33.280998 -53.855999 32.611
-32.525002 -53.845001 32.616001
-31.746 -53.796001 33.376999
-30.924 -53.652 36.047001
-30.075001 -53.452999 39.965
-29.323 -53.417 40.807999
-28.57 -53.377998 41.709999
-27.82 -53.347 42.396999
-27.066 -53.304001 43.341
-26.316 -53.278999 43.882999
-25.576 -53.277 43.952
-24.851999 -53.321999 43.035999
-24.122 -53.348999 42.557999
-23.381001 -53.342999 42.73
-22.622 -53.285999 43.856998
-21.847 -53.181 45.771999
-21.027 -52.945 49.886002
-20.236 -52.723999 54.334999
-19.48 -52.653 55.779999
-18.731001 -52.611 56.624001
-17.979 -52.553001 57.849998
-17.235001 -52.533001 58.280998
-16.492001 -52.521999 58.526001
-15.754 -52.513 58.814999
-15.017 -52.5 59.228001
-14.282 -52.494999 59.459
-13.547 -52.495998 59.563999
-12.813 -52.502998 59.526001
-12.08 -52.513 59.451
-11.349 -52.527 59.258999
-10.615 -52.539001 59.136002
-9.8809996 -52.549999 59.040001
-9.1479998 -52.562 58.921001
-8.4200001 -52.591 58.487
-7.6939998 -52.618 58.096001
-6.9689999 -52.646999 57.664001
-6.3309999 -52.883999 53.402
-5.6890001 -53.125999 48.733002
-4.9689999 -53.202999 46.735001
-4.2399998 -53.241001 45.679001
-3.507 -53.264999 44.980999
-2.7709999 -53.284 44.339001
-2.033 -53.294998 43.882999
-1.293 -53.299 43.640999
-0.551 -53.304001 43.280998
0.19 -53.301998 43.284
0.93099999 -53.301998 43.139999
1.674 -53.313 42.592999
2.4260001 -53.362 40.595001
3.2119999 -53.521999 36.639999
3.984 -53.608002 34.84
4.7459998 -53.665001 33.722
5.5 -53.702999 33.049999
6.2519999 -53.735001 32.509998
7 -53.748001 32.415001
7.7480001 -53.762001 32.297001
8.493 -53.780998 32.063
9.2309999 -53.789001 32.063999
9.9689999 -53.791 32.181999
-35.556 -53.144001 32.759998
-34.800999 -53.134998 32.687
-34.048 -53.131001 32.522999
-33.292999 -53.123001 32.43
-32.532001 -53.103001 32.563
-31.747999 -53.042 33.530998
-30.896 -52.837002 37.490002
-30.077 -52.669998 40.964001
-29.326 -52.636002 41.709999
-28.576 -52.605 42.370998
-27.818001 -52.549999 43.540001
-27.063999 -52.512001 44.344002
-26.312 -52.477001 45.067001
-25.566 -52.457001 45.469002
-24.826 -52.457001 45.432999
-24.097 -52.487999 44.801998
-23.351 -52.467999 45.167
-22.565001 -52.331001 47.595001
-21.763 -52.130001 51.144001
-20.992001 -51.987 54.085999
-20.237 -51.929001 55.314999
-19.483999 -51.879002 56.367001
-18.73 -51.823002 57.604
-17.98 -51.786999 58.382999
-17.236 -51.775002 58.647999
-16.49 -51.757999 59.049
-15.75 -51.743 59.476002
-15.015 -51.737 59.744999
-14.281 -51.738998 59.846001
-13.548 -51.740002 59.939999
-12.814 -51.743 60.005001
-12.081 -51.75 59.978001
-11.35 -51.762001 59.859001
-10.613 -51.773998 59.692001
-9.8769999 -51.786999 59.533001
-9.1440001 -51.806999 59.213001
-8.4110003 -51.826 58.945
-7.6820002 -51.849998 58.582001
-6.9559999 -51.881001 58.096001
-6.3060002 -52.071999 54.633999
-4.9689999 -52.379002 49.006001
-4.243 -52.424 47.922001
-3.513 -52.453999 47.173
-2.78 -52.483002 46.345001
-2.043 -52.502998 45.709999
-1.303 -52.512001 45.257
-0.56099999 -52.521 44.662998
0.18000001 -52.522999 44.403
0.92000002 -52.528 44.062
1.6619999 -52.539001 43.470001
2.4089999 -52.588001 41.444
3.1789999 -52.702 38.215
3.957 -52.778999 36.598
4.7340002 -52.869999 34.709999
5.5040002 -52.952 33.057999
6.2610002 -52.988998 32.417999
7.0110002 -53.006001 32.237
7.7610002 -53.02 32.118999
8.507 -53.036999 31.945
9.243 -53.043999 31.969
-34.813 -52.404999 32.563999
-34.062 -52.403 32.301998
-33.301998 -52.383999 32.355999
-32.540001 -52.363998 32.455002
-31.752001 -52.291 33.632
-30.865999 -52.014 39.216999
-30.080999 -51.895 41.730999
-29.333 -51.868999 42.245998
-28.577999 -51.823002 43.194
-27.815001 -51.755001 44.601002
-27.061001 -51.716999 45.365002
-26.304001 -51.673 46.271
-25.547001 -51.620998 47.241001
-24.785 -51.554001 48.436001
-24.021 -51.484001 49.570999
-23.261 -51.414001 50.702999
-22.502001 -51.334 52.187
-21.746 -51.254002 53.75
-20.995001 -51.199001 54.904999
-20.243 -51.159 55.806
-19.485001 -51.096001 57.241001
-18.732 -51.053001 58.228001
-17.983 -51.030998 58.740002
-17.235001 -51.012001 59.172001
-16.487 -50.994999 59.57
-15.748 -50.985001 59.896999
-15.014 -50.984001 60.077
-14.279 -50.986 60.221001
-13.545 -50.987999 60.351002
-12.812 -50.993 60.410999
-12.08 -50.999001 60.41
-11.351 -51.009998 60.262001
-10.612 -51.016998 60.141998
-9.8730001 -51.025002 60.012001
-9.1359997 -51.042 59.730999
-8.401 -51.061001 59.424999
-7.6719999 -51.091999 58.901001
-6.9450002 -51.120998 58.425999
-6.2719998 -51.252998 56.021
-5.6149998 -51.41 53.257
-4.9359999 -51.522999 51.366001
-4.2379999 -51.599998 50.206001
-3.517 -51.643002 49.355999
-2.786 -51.681999 48.341
-2.052 -51.709999 47.569
-1.312 -51.724998 46.834
-0.56900001 -51.737 46.103001
0.17200001 -51.744999 45.533001
0.912 -51.751999 45.033001
1.652 -51.764999 44.341999
2.3940001 -51.811001 42.370998
3.1459999 -51.898998 39.363998
3.9289999 -51.965 37.997002
4.7150002 -52.056999 36.082001
5.5139999 -52.223 32.595001
6.2709999 -52.255001 32.081001
7.0240002 -52.271999 31.912001
7.7750001 -52.284 31.841
8.5209999 -52.292999 31.823
9.2539997 -52.296001 31.922001
-34.823002 -51.668999 32.439999
-34.071999 -51.666 32.140999
-33.313 -51.650002 32.116001
-32.549999 -51.625 32.243
-31.754 -51.535999 33.771
-30.858999 -51.227001 40.264
-30.091999 -51.141998 41.972
-29.344999 -51.117001 42.426998
-28.576 -51.033001 44.132
-27.816 -50.977001 45.242001
-27.063 -50.942001 45.917999
-26.299999 -50.881001 47.136002
-25.535 -50.808998 48.445999
-24.773001 -50.743 49.527
-24.011 -50.669998 50.706001
-23.252001 -50.601002 51.955002
-22.5 -50.542 53.042999
-21.747999 -50.479 54.323002
-20.999001 -50.432999 55.353001
-20.243 -50.380001 56.603001
-19.487 -50.332001 57.751999
-18.733999 -50.299 58.521999
-17.983 -50.273998 59.112
-17.232 -50.254002 59.578999
-16.483 -50.240002 59.907001
-15.743 -50.235001 60.174999
-15.009 -50.236 60.379002
-14.275 -50.237999 60.516998
-13.542 -50.240002 60.646999
-12.81 -50.247002 60.640999
-12.08 -50.254002 60.618999
-11.35 -50.264 60.519001
-10.611 -50.269001 60.442001
-9.8710003 -50.276001 60.338001
-9.132 -50.285999 60.141998
-8.3950005 -50.305 59.768002
-7.6669998 -50.338001 59.174999
-6.9390001 -50.367001 58.679001
-6.2389998 -50.443001 57.326
-5.5630002 -50.553001 55.394001
-4.8769999 -50.648998 53.778999
-4.1830001 -50.731998 52.438999
-3.4779999 -50.792999 51.540001
-2.779 -50.868999 50.382
-2.0569999 -50.918999 49.368
-1.317 -50.938 48.469002
-0.574 -50.953999 47.460999
0.168 -50.969002 46.566002
0.90899998 -50.98 45.856998
1.648 -50.991001 45.176998
2.388 -51.035 43.271999
3.125 -51.089001 41.110001
3.9059999 -51.162998 39.101002
4.6999998 -51.264 36.997002
5.5229998 -51.495998 32.085999
6.2789998 -51.518002 31.804001
7.0320001 -51.534 31.658001
7.7839999 -51.546001 31.58
8.5279999 -51.550999 31.67
9.2589998 -51.551998 31.802
-34.076 -50.915001 32.040001
-33.319 -50.903 31.905001
-32.556 -50.880001 32.021
-31.764999 -50.798 33.443001
-30.885 -50.511002 39.803001
-30.107 -50.395 42.076
-29.356001 -50.363998 42.639999
-28.589001 -50.283001 44.199001
-27.823999 -50.214001 45.522999
-27.072001 -50.181999 46.105999
-26.302999 -50.105999 47.556999
-25.541 -50.043999 48.634998
-24.774 -49.969002 49.844002
-24.011999 -49.898998 51.083
-23.254 -49.834 52.293999
-22.497 -49.764999 53.700001
-21.747999 -49.721001 54.618999
-20.996 -49.671001 55.771
-20.239 -49.624001 56.916
-19.483999 -49.583 57.912998
-18.731001 -49.551998 58.646999
-17.978001 -49.525002 59.307999
-17.226 -49.502998 59.835999
-16.476 -49.490002 60.191002
-15.737 -49.488998 60.379002
-15.002 -49.488998 60.597
-14.267 -49.488998 60.811001
-13.535 -49.493 60.891998
-12.804 -49.5 60.869999
-12.073 -49.507999 60.824001
-11.344 -49.518002 60.688999
-10.607 -49.525002 60.583
-9.8699999 -49.533001 60.484001
-9.132 -49.540001 60.389
-8.3959999 -49.556 60
-7.664 -49.577999 59.622002
-6.9400001 -49.612999 58.997002
-6.223 -49.654999 58.303001
-5.5250001 -49.723999 57.125
-4.8249998 -49.792 55.985001
-4.1279998 -49.868 54.727001
-3.425 -49.932999 53.716
-2.7290001 -50.015999 52.363998
-2.03 -50.097 51.091999
-1.318 -50.158001 49.847
-0.574 -50.173 48.832001
0.169 -50.188 47.828999
0.91100001 -50.205002 46.862
1.652 -50.223 45.888
2.391 -50.256001 44.363998
3.1289999 -50.292999 42.779999
3.8889999 -50.349998 40.737
4.6869998 -50.480999 37.688999
5.5279999 -50.757 31.851
6.2800002 -50.778 31.593
7.0320001 -50.796001 31.399
7.7800002 -50.804001 31.406
8.5220003 -50.804001 31.593
9.2530003 -50.804001 31.745001
-33.321999 -50.153 31.771
-32.561001 -50.132 31.830999
-31.778 -50.064999 32.979
-30.917999 -49.806 39.012001
-30.125 -49.66 41.949001
-29.370001 -49.617001 42.703999
-28.604 -49.542 44.074001
-27.836 -49.463001 45.521999
-27.08 -49.421001 46.280998
-26.312 -49.348 47.618
-25.547001 -49.279999 48.764999
-24.782 -49.210999 49.854
-24.018999 -49.144001 51.102001
-23.261999 -49.09 52.153999
-22.5 -49.013 53.826
-21.749001 -48.967999 54.789001
-20.995001 -48.921001 55.916
-20.236 -48.869999 57.173
-19.48 -48.833 58.084999
-18.726999 -48.805 58.790001
-17.973 -48.778 59.449001
-17.222 -48.757999 59.93
-16.471001 -48.745998 60.312
-15.733 -48.747002 60.438
-14.998 -48.747002 60.661999
-14.263 -48.745998 60.888
-13.531 -48.75 60.971001
-12.798 -48.755001 61.028999
-12.067 -48.759998 61.064999
-11.339 -48.773998 60.821999
-10.605 -48.783001 60.691002
-9.8699999 -48.791 60.571999
-9.1339998 -48.799 60.463001
-8.401 -48.816002 60.082001
-7.6659999 -48.827 59.903
-6.9380002 -48.854 59.452999
-6.2199998 -48.893002 58.778999
-5.506 -48.93 58.236
-4.8010001 -48.986 57.306999
-4.0960002 -49.044998 56.324001
-3.3940001 -49.113998 55.178001
-2.691 -49.182999 54.056
-1.997 -49.275002 52.519001
-1.291 -49.348 51.101002
-0.57200003 -49.401001 49.803001
0.171 -49.411999 48.959
0.91299999 -49.43 47.869999
1.655 -49.452 46.721001
2.395 -49.481998 45.291
3.1329999 -49.507999 44.085999
3.888 -49.553001 42.368
4.677 -49.710999 38.078999
5.5320001 -50.016998 31.636999
6.283 -50.036999 31.385
7.0320001 -50.053001 31.233999
7.777 -50.058998 31.299999
8.5170002 -50.061001 31.43
-33.325001 -49.402 31.635
-32.563 -49.379002 31.724001
-31.785 -49.320999 32.723999
-30.966 -49.143002 37.009998
-30.142 -48.922001 41.876999
-29.382 -48.862999 42.903999
-28.617001 -48.793999 44.106998
-27.849001 -48.716 45.472
-27.089001 -48.664001 46.362
-26.325001 -48.601002 47.463001
-25.556999 -48.528 48.694
-24.789 -48.453999 49.855
-24.025999 -48.389 51.126999
-23.264999 -48.330002 52.377998
-21.747999 -48.213001 55.042
-20.996 -48.174999 55.942001
-20.235001 -48.124001 57.254002
-19.478001 -48.088001 58.162998
-18.723 -48.056999 58.931
-17.971001 -48.037998 59.412998
-17.216 -48.012001 60.103001
-16.466999 -48.004002 60.363998
-15.729 -48.006001 60.452999
-14.994 -48.004002 60.729
-14.261 -48.006001 60.905998
-13.528 -48.009998 60.986
-12.795 -48.013 61.089001
-12.062 -48.016998 61.175999
-11.333 -48.027 61.057999
-10.603 -48.041 60.775002
-9.8690004 -48.049 60.687
-9.1359997 -48.058998 60.546001
-8.4049997 -48.074001 60.195
-7.6719999 -48.085999 60.014
-6.9400001 -48.101002 59.792999
-6.223 -48.139999 59.108002
-5.506 -48.171001 58.659
-4.7919998 -48.209999 58.050999
-4.085 -48.265999 57.106998
-3.382 -48.334 55.941002
-2.675 -48.395 54.943001
-1.976 -48.477001 53.551998
-1.272 -48.556 51.965
-0.56199998 -48.630001 50.341999
0.17399999 -48.651001 49.459999
0.91600001 -48.664001 48.537998
1.658 -48.682999 47.462002
2.3989999 -48.716999 45.861
3.1370001 -48.740002 44.736
3.888 -48.768002 43.543999
4.723 -49.088001 35.306
5.539 -49.280998 31.322001
6.2880001 -49.304001 31.037001
7.033 -49.313999 31.014999
7.7750001 -49.316002 31.141001
8.5120001 -49.313999 31.367001
-33.325001 -48.645 31.629
-32.563 -48.623001 31.704
-31.795 -48.585999 32.212002
-31.006001 -48.472 34.967999
-30.190001 -48.271 40.294998
-29.403 -48.137001 42.583
-28.632999 -48.051998 44.014
-27.865 -47.977001 45.286999
-27.101999 -47.915001 46.316002
-26.339001 -47.859001 47.252998
-25.566 -47.772999 48.674999
-24.798 -47.700001 49.804001
-24.034 -47.639 51.048
-21.75 -47.465 55.108002
-20.990999 -47.414001 56.375999
-20.233999 -47.380001 57.275002
-19.475 -47.342999 58.237
-18.719 -47.313 59.002998
-17.969 -47.298 59.367001
-17.212999 -47.271999 60.063999
-16.464001 -47.264 60.351002
-15.727 -47.265999 60.432999
-14.993 -47.266998 60.643002
-14.259 -47.269001 60.799
-13.527 -47.272999 60.889999
-12.794 -47.276001 61.000999
-12.061 -47.278 61.140999
-11.331 -47.287998 61.032001
-10.601 -47.299999 60.834
-9.8699999 -47.308998 60.710999
-9.1379995 -47.318001 60.634998
-8.408 -47.331001 60.389999
-7.6789999 -47.347 60.058998
-6.948 -47.360001 59.907001
-6.2280002 -47.391998 59.360001
-5.513 -47.428001 58.783001
-4.796 -47.459999 58.298
-4.0890002 -47.519001 57.264
-3.3840001 -47.584999 56.109001
-2.6760001 -47.646 55.073002
-1.975 -47.728001 53.641998
-1.267 -47.800999 52.144001
-0.55599999 -47.874001 50.484001
0.178 -47.902 49.419998
0.92000002 -47.911999 48.657001
1.6619999 -47.933998 47.418999
2.4030001 -47.962002 46.015999
3.141 -47.986 44.845001
3.8889999 -48.022999 43.303001
4.776 -48.466999 32.519001
5.5479999 -48.549 30.948999
6.2909999 -48.558998 30.917
7.033 -48.568001 30.923
7.7719998 -48.568001 31.096001
8.5050001 -48.561001 31.427
9.2340002 -48.561001 31.586
-33.326 -47.888 31.608
-32.564999 -47.868999 31.615999
-31.801001 -47.841999 31.858
-31.037001 -47.787998 33.030998
-30.236 -47.616001 37.997002
-29.445 -47.467999 41.338001
-28.653 -47.323002 43.723999
-27.889 -47.257999 44.771999
-27.120001 -47.182999 45.977001
-26.354 -47.116001 47.063999
-25.577 -47.021 48.588001
-24.808001 -46.952 49.662998
-21.749001 -46.710999 55.341999
-20.99 -46.667999 56.438
-20.232 -46.636002 57.300999
-19.473 -46.598999 58.271999
-18.716999 -46.571999 58.979
-17.965 -46.556999 59.382
-17.209 -46.529999 60.120998
-16.459999 -46.522999 60.352001
-15.723 -46.525002 60.458
-14.99 -46.526001 60.641998
-14.257 -46.529999 60.748001
-13.525 -46.534 60.844002
-12.792 -46.537998 60.931999
-12.059 -46.540001 61.077999
-11.329 -46.549 60.993
-10.601 -46.561001 60.803001
-9.8719997 -46.571999 60.673
-9.1409998 -46.580002 60.605999
-8.4139996 -46.596001 60.310001
-7.6869998 -46.612 60.008999
-6.9590001 -46.625999 59.84
-6.2399998 -46.66 59.245998
-5.5229998 -46.692001 58.745998
-4.8049998 -46.723999 58.257
-4.0970001 -46.783001 57.189999
-3.391 -46.847 56.035999
-2.6800001 -46.904999 55.062
-1.977 -46.985001 53.623001
-1.274 -47.077 51.671001
-0.56 -47.151001 49.879002
0.183 -47.165001 48.904999
0.92500001 -47.174999 48.132
1.6670001 -47.198002 46.833
2.4070001 -47.223 45.563999
3.145 -47.248001 44.362
3.8900001 -47.372002 39.800999
4.8039999 -47.773998 31.292
5.552 -47.803001 30.871
6.289 -47.804001 31.021
7.0289998 -47.812 31.052
7.7649999 -47.812 31.221001
8.4960003 -47.804001 31.556999
-33.325001 -47.131001 31.615999
-32.564999 -47.112999 31.593
-31.804001 -47.091999 31.642
-31.049999 -47.066002 32.013
-30.278 -46.967999 34.889999
-29.5 -46.84 38.994999
-28.704 -46.676998 42.106998
-27.919001 -46.555 44.027
-27.148001 -46.473999 45.291
-26.372999 -46.384998 46.696999
-25.593 -46.283001 48.308998
-24.823999 -46.214001 49.362
-20.99 -45.924 56.452
-20.231001 -45.891998 57.321999
-19.471001 -45.855999 58.280998
-18.716999 -45.835999 58.824001
-17.962999 -45.816002 59.349998
-17.207001 -45.792 60.004002
-16.458 -45.785 60.280998
-15.721 -45.785999 60.379002
-14.988 -45.787998 60.577999
-14.255 -45.791 60.695
-13.523 -45.794998 60.786999
-12.791 -45.799999 60.846001
-12.059 -45.804001 60.93
-11.329 -45.813999 60.818001
-10.602 -45.825001 60.682999
-9.8739996 -45.834999 60.583
-9.1459999 -45.844002 60.527
-8.4200001 -45.859001 60.272999
-7.6960001 -45.876999 59.942001
-6.9710002 -45.895 59.722
-6.2529998 -45.929001 59.133999
-5.5349998 -45.962002 58.574001
-4.8189998 -45.999001 57.956001
-4.1069999 -46.050999 57.030998
-3.4000001 -46.118999 55.757
-2.6849999 -46.164001 55.012001
-1.983 -46.254002 53.344002
-1.286 -46.372002 50.776001
-0.55299997 -46.421001 48.979
0.19 -46.435001 48.000999
0.93199998 -46.453999 46.869999
1.6720001 -46.469002 45.931999
2.411 -46.484001 45.111
3.1489999 -46.528 43.132
4.0370002 -46.943001 32.863998
4.8179998 -47.044998 30.851999
5.5560002 -47.056 30.805
6.2870002 -47.049 31.129999
7.0229998 -47.050999 31.254999
7.756 -47.049 31.481001
-32.563999 -46.355999 31.65
-31.804001 -46.338001 31.629
-31.051001 -46.316002 31.875999
-30.296 -46.271 33.032001
-29.527 -46.168999 36.299999
-28.759001 -46.063999 39.999001
-27.945 -45.868 43.126999
-27.177999 -45.799 44.207001
-26.403999 -45.713001 45.558998
-25.615 -45.591 47.502998
-24.836 -45.500999 48.936001
-20.996 -45.205002 56.098
-20.235001 -45.168999 57.097
-19.475 -45.134998 58.035999
-18.719999 -45.112999 58.639999
-17.964001 -45.09 59.255001
-17.208 -45.067001 59.890999
-16.459 -45.058998 60.144001
-15.722 -45.058998 60.278
-14.989 -45.061001 60.452
-14.256 -45.063999 60.582001
-13.524 -45.068001 60.689999
-12.792 -45.074001 60.712002
-12.061 -45.078999 60.743
-11.331 -45.089001 60.633999
-10.603 -45.098 60.530998
-9.8760004 -45.109001 60.379002
-9.1499996 -45.120998 60.200001
-8.4239998 -45.134998 59.969002
-7.6989999 -45.151001 59.755001
-6.9770002 -45.174999 59.321999
-6.256 -45.199001 58.941002
-5.5409999 -45.237999 58.240002
-4.822 -45.266998 57.779999
-4.1100001 -45.319 56.827999
-3.402 -45.382 55.631001
-2.684 -45.421001 55.007999
-1.992 -45.535 52.726002
-1.295 -45.672001 49.261002
-0.54900002 -45.708 47.323002
0.192 -45.721001 46.467999
0.93099999 -45.73 45.830002
1.67 -45.737999 45.242001
2.4089999 -45.764 44.019001
3.2179999 -46.021999 36.505001
4.0809999 -46.292 30.702
4.8200002 -46.301998 30.691999
5.5570002 -46.307999 30.759001
6.2870002 -46.299 31.132
7.0180001 -46.293999 31.410999
7.7509999 -46.291 31.642
-33.323002 -45.618 31.768999
-32.563 -45.601002 31.729
-31.802999 -45.583 31.705999
-31.051001 -45.563 31.903
-30.299999 -45.530998 32.595001
-29.549 -45.494999 33.507
-28.788 -45.419998 35.978001
-28.018999 -45.306999 40.108002
-27.208 -45.129002 43.016998
-26.436001 -45.050999 44.278
-25.646999 -44.932999 46.212002
-24.857 -44.819 48.089001
-20.243 -44.460999 56.601002
-19.481001 -44.423 57.653999
-18.724001 -44.397999 58.365002
-17.969 -44.376999 58.957001
-17.215 -44.358002 59.484001
-16.462999 -44.341999 59.912998
-15.724 -44.34 60.101002
-14.992 -44.342999 60.247002
-14.259 -44.345001 60.398998
-13.527 -44.348 60.533001
-12.796 -44.354 60.519001
-12.064 -44.360001 60.555
-11.334 -44.369999 60.432999
-10.607 -44.380001 60.25
-9.8789997 -44.389999 60.075001
-9.1499996 -44.396999 60
-8.4239998 -44.410999 59.77
-7.7010002 -44.431999 59.382999
-6.9770002 -44.448002 59.092999
-6.2550001 -44.470001 58.716999
-5.5409999 -44.509998 57.974998
-4.8210001 -44.535999 57.569
-4.1110001 -44.589001 56.541
-3.402 -44.645 55.466
-2.684 -44.681 54.891998
-2.0109999 -44.84 51.465
-1.293 -44.963001 47.463001
-0.55199999 -44.986 46.208
0.18799999 -44.998001 45.467999
0.926 -45.008999 44.812
1.664 -45.028 43.915001
2.4419999 -45.220001 37.853001
3.329 -45.52 30.955
4.0770001 -45.546001 30.579
4.8150001 -45.550999 30.688999
5.5539999 -45.556999 30.757
6.2870002 -45.551998 31.063
7.0209999 -45.549 31.313
-33.321999 -44.861 31.886
-32.562 -44.844002 31.841
-31.802 -44.826 31.823
-31.049999 -44.805 32.069
-30.302 -44.782001 32.453999
-29.552999 -44.756001 33.002998
-28.802 -44.720001 34.004002
-28.051001 -44.678001 35.347
-26.474001 -44.395 42.819
-25.690001 -44.291 44.573002
-24.902 -44.182999 46.379002
-20.246 -43.743999 56.372002
-19.489 -43.716999 57.133999
-18.73 -43.683998 58.060001
-17.976 -43.665001 58.605999
-17.222 -43.646 59.120998
-16.469999 -43.632999 59.481998
-15.731 -43.630001 59.712002
-14.996 -43.627998 59.93
-14.263 -43.629002 60.125
-13.531 -43.632 60.244999
-12.799 -43.636002 60.305
-12.068 -43.641998 60.334999
-11.338 -43.651001 60.233002
-10.608 -43.659 60.091999
-9.8800001 -43.667999 59.929001
-9.151 -43.675999 59.800999
-8.4259996 -43.688999 59.526001
-7.7020001 -43.707001 59.152
-6.9759998 -43.720001 58.872002
-6.257 -43.744999 58.363998
-5.54 -43.776001 57.818001
-4.822 -43.806999 57.276001
-4.1149998 -43.862 56.151001
-3.401 -43.903999 55.376999
-2.6919999 -43.959999 54.301998
-2.0350001 -44.161999 49.542999
-1.295 -44.241001 46.360001
-0.55599999 -44.275002 44.801998
0.18099999 -44.297001 43.780998
0.917 -44.334 42.251999
1.707 -44.504002 37.230999
2.5799999 -44.763 30.903
3.329 -44.785 30.563999
4.0700002 -44.792999 30.618999
4.809 -44.797001 30.736
5.5479999 -44.800999 30.865999
6.2820001 -44.796001 31.195999
7.0180001 -44.792999 31.440001
-33.320999 -44.105 31.975
-32.561001 -44.088001 31.952999
-31.799999 -44.068001 32
-31.049 -44.048 32.205002
-30.302 -44.029999 32.448002
-29.554001 -44.007999 32.855
-28.805 -43.979 33.582001
-28.056999 -43.951 34.339001
-27.306999 -43.908001 35.827
-20.247999 -43.023998 56.210999
-19.493 -42.999001 56.91
-18.736 -42.973999 57.645
-17.979 -42.946999 58.418999
-17.226999 -42.931 58.852001
-16.476999 -42.922001 59.127998
-15.736 -42.915001 59.438
-15.003 -42.917999 59.562
-14.268 -42.915001 59.819
-13.534 -42.914001 60.032001
-12.801 -42.917 60.152
-12.07 -42.922001 60.185001
-11.34 -42.931999 60.075001
-10.61 -42.938 59.945999
-9.882 -42.948002 59.703999
-9.1529999 -42.955002 59.564999
-8.4259996 -42.965 59.327
-7.7020001 -42.980999 58.908001
-6.9759998 -42.992001 58.641998
-6.257 -43.015999 58.105999
-5.5409999 -43.046001 57.535999
-4.8270001 -43.084 56.806999
-4.119 -43.133999 55.763
-3.405 -43.174 55.012001
-2.71 -43.261002 53.101002
-2.0380001 -43.464001 47.526001
-1.301 -43.533001 44.882
-0.565 -43.585999 42.793999
0.99699998 -43.828999 35.391998
1.827 -43.995998 31.063999
2.5829999 -44.030998 30.399
3.3210001 -44.032001 30.576
4.0619998 -44.039001 30.667999
4.8039999 -44.044998 30.771
5.5409999 -44.042999 31.044001
6.2779999 -44.041 31.291
7.0170002 -44.042 31.469
-33.32 -43.351002 32.028
-32.560001 -43.331001 32.075001
-31.799999 -43.313 32.088001
-31.048 -43.292999 32.284
-30.302 -43.276001 32.495998
-29.555 -43.257 32.813
-28.806 -43.228001 33.549999
-28.059 -43.202 34.23
-27.311001 -43.171001 35.200001
-26.561001 -43.125999 37.009998
-19.495001 -42.278 56.792
-18.740999 -42.257999 57.375999
-17.983999 -42.233002 58.099998
-17.229 -42.210999 58.729
-16.48 -42.202999 58.952
-15.741 -42.201 59.161999
-15.006 -42.200001 59.388
-14.273 -42.202 59.528
-13.54 -42.203999 59.652
-12.806 -42.202999 59.860001
-12.074 -42.209 59.889
-11.344 -42.217999 59.807999
-10.615 -42.224998 59.592999
-9.8870001 -42.233002 59.362
-9.1560001 -42.234001 59.296001
-8.4289999 -42.243999 58.993999
-7.704 -42.257 58.610001
-6.9809999 -42.271 58.166
-6.2600002 -42.289001 57.741001
-5.5450001 -42.320999 57.117001
-4.835 -42.363998 56.214001
-4.1230001 -42.404999 55.380001
-3.411 -42.445999 54.568001
-2.0450001 -42.771 45.597
-0.52100003 -43.025002 36.987999
0.28099999 -43.136002 33.793999
1.059 -43.207001 31.924999
1.83 -43.264 30.531
2.5739999 -43.277 30.419001
3.3099999 -43.277 30.662001
4.0539999 -43.284 30.749001
4.7940001 -43.285 30.986
5.5339999 -43.285999 31.191
6.2719998 -43.284 31.450001
7.0120001 -43.284 31.655001
-33.32 -42.596001 32.097
-32.560001 -42.577 32.126999
-31.799 -42.556999 32.181
-31.048 -42.537998 32.389999
-30.301001 -42.52 32.653999
-29.555 -42.501999 32.929001
-28.806 -42.473999 33.647999
-28.059 -42.448002 34.359001
-27.311001 -42.417 35.391998
-26.563 -42.381001 36.777
-25.819 -42.331001 38.813999
-19.503 -41.570999 56.249001
-18.745001 -41.542 57.113998
-17.989 -41.519001 57.777
-17.235001 -41.499001 58.360001
-16.483 -41.485001 58.772999
-15.746 -41.486 58.889
-15.011 -41.485001 59.102001
-14.277 -41.484001 59.330002
-13.544 -41.487999 59.422001
-12.811 -41.491001 59.519001
-12.08 -41.495998 59.558998
-11.35 -41.506001 59.473999
-10.62 -41.509998 59.272999
-9.8889999 -41.513 59.132999
-9.1599998 -41.516998 58.91
-8.434 -41.526001 58.584999
-7.71 -41.537998 58.125
-6.9840002 -41.544998 57.807999
-6.263 -41.561001 57.354
-5.5510001 -41.597 56.605999
-4.8400002 -41.636002 55.772999
-4.1290002 -41.675999 54.925999
-3.418 -41.719002 54.044998
-1.256 -42.301998 36.314999
-0.48500001 -42.356998 34.624001
0.29100001 -42.419998 32.821999
1.053 -42.460999 31.778
1.8150001 -42.501999 30.819
2.5610001 -42.516998 30.632999
3.2969999 -42.515999 30.898001
4.0430002 -42.525002 30.941999
4.7870002 -42.528999 31.09
5.5279999 -42.530998 31.302999
6.2680001 -42.529999 31.551001
7.0079999 -42.529999 31.761
-32.558998 -41.821999 32.185001
-31.798 -41.800999 32.318001
-31.047001 -41.780998 32.541
-30.301001 -41.763 32.808998
-29.554001 -41.743999 33.151001
-28.806 -41.716 33.904999
-28.059 -41.692001 34.555
-27.312 -41.665001 35.449001
-26.565001 -41.629002 36.887001
-25.823 -41.59 38.365002
-18.753 -40.834 56.567001
-17.995001 -40.806 57.414001
-17.243 -40.791 57.869999
-16.490999 -40.777 58.290001
-15.752 -40.775002 58.472
-15.018 -40.776001 58.653
-14.285 -40.777 58.820999
-13.55 -40.777 59.029999
-12.818 -40.779999 59.139999
-12.086 -40.786999 59.134998
-11.355 -40.792999 59.139999
-10.625 -40.796001 58.916
-9.8959999 -40.799999 58.674
-9.1660004 -40.803001 58.438999
-8.4420004 -40.812 58
-7.7140002 -40.813999 57.757999
-6.9879999 -40.818001 57.452999
-6.2670002 -40.832001 57
-5.5570002 -40.868999 56.160999
-4.8439999 -40.903 55.453999
-4.1350002 -40.945 54.493999
-2.036 -41.521 37.723999
-1.2589999 -41.57 35.945999
-0.493 -41.613998 34.530998
0.27599999 -41.662998 33.105999
1.038 -41.701 32.098
1.796 -41.733002 31.33
2.5409999 -41.747002 31.143
3.2809999 -41.752998 31.222
4.0300002 -41.763 31.219999
4.776 -41.77 31.312
5.5190001 -41.771999 31.511999
6.263 -41.775002 31.665001
7.0040002 -41.773998 31.898001
-32.556999 -41.066002 32.238998
-31.796 -41.043999 32.433998
-31.045 -41.025002 32.682999
-30.297001 -41.005001 33.051998
-29.549999 -40.986 33.415001
-28.801001 -40.959 34.116001
-28.054001 -40.933998 34.792
-27.308001 -40.910999 35.463001
-26.559999 -40.870998 36.959999
-25.819 -40.834999 38.224998
-25.079 -40.785999 40.018002
-18.757999 -40.130001 55.868999
-18 -40.099998 56.779999
-17.247 -40.082001 57.358002
-16.497999 -40.071999 57.681999
-15.758 -40.066002 57.980999
-15.024 -40.066002 58.139
-14.29 -40.067001 58.271999
-13.556 -40.067001 58.448002
-12.822 -40.068001 58.591999
-12.09 -40.073002 58.599998
-11.36 -40.082001 58.485001
-10.631 -40.085999 58.282001
-9.901 -40.085999 58.209
-9.1739998 -40.094002 57.897999
-8.448 -40.101002 57.597
-7.7199998 -40.104 57.441002
-6.9959998 -40.112 57.084999
-6.2810001 -40.137001 56.323002
-5.5650001 -40.162998 55.734001
-4.855 -40.200001 54.831001
-2.8269999 -40.675999 41.257
-2.043 -40.776001 37.609001
-1.273 -40.814999 36.216
-0.505 -40.860001 34.763
0.264 -40.905998 33.389999
1.026 -40.942001 32.426998
1.7819999 -40.969002 31.782
2.5309999 -40.986 31.490999
3.276 -40.995998 31.415001
4.02 -41.006001 31.415001
4.763 -41.013 31.486
5.5029998 -41.015999 31.648001
6.2420001 -41.016998 31.829
6.9809999 -41.02 31.983999
-32.555 -40.306999 32.348
-31.794001 -40.286999 32.553001
-31.042 -40.265999 32.897999
-30.294001 -40.249001 33.189999
-29.545 -40.227001 33.685001
-28.797001 -40.202 34.318001
-28.049 -40.178001 34.935001
-27.302 -40.150002 35.740002
-26.556 -40.112 37.034
-25.815001 -40.075001 38.297001
-18.004999 -39.395 56.157001
-17.250999 -39.370998 56.904999
-16.503 -39.362999 57.221001
-15.764 -39.358002 57.463001
-15.026 -39.349998 57.831001
-14.292 -39.348999 57.973
-13.558 -39.349998 58.063
-12.824 -39.348999 58.191002
-12.092 -39.353001 58.181
-11.361 -39.361 58.050999
-10.634 -39.368999 57.838001
-9.908 -39.375999 57.622002
-9.1809998 -39.382999 57.416
-8.4549999 -39.389999 57.217999
-2.8399999 -39.956001 40.304001
-2.049 -40.030998 37.516998
-1.284 -40.066002 36.297001
-0.51499999 -40.111 34.848999
0.252 -40.150002 33.652
1.008 -40.175999 32.976002
1.765 -40.201 32.375
2.5179999 -40.222 31.938999
3.267 -40.236 31.731001
4.0079999 -40.245998 31.68
4.7470002 -40.252998 31.742001
5.4829998 -40.256001 31.889
6.2210002 -40.261002 31.962
6.9559999 -40.263 32.124001
7.6950002 -40.27 32.167
-31.792 -39.528 32.723999
-31.039 -39.508999 33.047001
-30.290001 -39.492001 33.337002
-29.540001 -39.466999 33.977001
-28.792 -39.445 34.471001
-28.045 -39.421001 35.064999
-27.296 -39.382999 36.244999
-18.763 -38.709999 54.873001
-18.007 -38.681999 55.737999
-17.257999 -38.668999 56.209
-16.506001 -38.650002 56.855
-15.768 -38.646 57.060001
-15.031 -38.639 57.321999
-14.292 -38.627998 57.734001
-13.558 -38.626999 57.824001
-12.825 -38.626999 57.886002
-12.093 -38.632 57.803001
-11.362 -38.637001 57.698002
-10.637 -38.647999 57.443001
-9.9139996 -38.661999 57.119999
-9.1870003 -38.669998 56.974998
-8.4639997 -38.683998 56.645
-7.0219998 -38.720001 55.740002
-2.8469999 -39.213001 40.016998
-2.056 -39.285999 37.438
-1.2920001 -39.320999 36.262001
-0.52700001 -39.356998 35.087002
0.241 -39.397999 33.823002
0.99599999 -39.418999 33.276001
1.751 -39.441002 32.769001
2.5039999 -39.458 32.418999
3.256 -39.473999 32.116001
3.9949999 -39.487 31.973
4.7319999 -39.495998 31.948999
5.4679999 -39.501999 31.983
6.2030001 -39.508999 32.023998
6.9359999 -39.513 32.125999
7.6700001 -39.519001 32.181
-31.035999 -38.752998 33.132999
-30.285999 -38.730999 33.646999
-29.535999 -38.709 34.171001
-28.787001 -38.683998 34.768002
-18.764999 -37.999001 54.424999
-18.01 -37.971001 55.314999
-17.26 -37.956001 55.830002
-16.514 -37.948002 56.166
-15.774 -37.938 56.514
-15.035 -37.924999 56.910999
-14.299 -37.917999 57.130001
-13.564 -37.915001 57.243999
-12.827 -37.905998 57.521999
-12.096 -37.91 57.412998
-11.365 -37.915001 57.257999
-10.643 -37.931 56.931999
-9.9180002 -37.944 56.713001
-9.1940002 -37.958 56.478001
-8.4700003 -37.973999 56.209
-7.7490001 -37.993999 55.790001
-7.0300002 -38.02 55.214001
-5.6040001 -38.077 53.479
-2.845 -38.473 39.563999
-2.062 -38.542 37.323002
-1.302 -38.573002 36.32
-0.542 -38.601002 35.394001
0.229 -38.641998 34.098
0.98299998 -38.660999 33.630001
1.742 -38.686001 32.985001
2.4960001 -38.702999 32.606998
3.2479999 -38.719002 32.327999
3.987 -38.734001 32.077
4.7210002 -38.743 32.023998
5.454 -38.751999 32.002998
6.184 -38.756001 32.09
6.915 -38.762001 32.150002
7.6459999 -38.768002 32.191002
-19.531 -37.332001 52.652
-18.768999 -37.292 53.868999
-18.014999 -37.265999 54.68
-17.264 -37.245998 55.383999
-16.518 -37.238998 55.709
-15.779 -37.229 55.993999
-15.04 -37.215 56.382999
-14.305 -37.207001 56.549
-13.569 -37.198002 56.775002
-12.834 -37.193001 56.868
-12.101 -37.191002 56.884998
-11.37 -37.194 56.716
-10.646 -37.209999 56.52
-9.9230003 -37.228001 56.252998
-9.1999998 -37.244999 56.033001
-8.4790001 -37.268002 55.629002
-7.7579999 -37.292 55.187
-7.0370002 -37.317001 54.769001
-6.322 -37.348999 53.944
-2.849 -37.723 39.476002
-2.073 -37.791 37.443001
-1.312 -37.825001 36.368
-0.55199999 -37.852001 35.498001
0.214 -37.884998 34.448002
0.97000003 -37.904999 33.926998
1.732 -37.931 33.205002
2.4879999 -37.949001 32.799
3.244 -37.966999 32.436001
3.98 -37.981998 32.159
4.711 -37.993 32.047001
5.4400001 -38.000999 32.033001
6.1669998 -38.006001 32.108002
6.8940001 -38.012001 32.153
7.6199999 -38.015999 32.244999
-19.537001 -36.629002 52.035
-18.775 -36.588001 53.223999
-18.021 -36.562 54.049999
-17.268999 -36.541 54.772999
-16.521999 -36.528 55.278
-15.783 -36.518002 55.528
-15.046 -36.504002 55.848
-14.309 -36.491001 56.130001
-13.573 -36.48 56.324001
-12.839 -36.473999 56.396999
-12.105 -36.469002 56.439999
-11.375 -36.469002 56.254002
-10.652 -36.490002 56.004002
-9.9289999 -36.511002 55.768002
-9.2080002 -36.535 55.429001
-8.4890003 -36.563999 54.937
-7.7659998 -36.59 54.591
-7.046 -36.620998 54.116001
-6.3369999 -36.667999 52.875999
-5.6389999 -36.715 51.064999
-2.0799999 -37.044998 37.395
-1.324 -37.074001 36.544998
-0.56300002 -37.102001 35.636002
0.198 -37.126999 34.863998
0.95599997 -37.147999 34.278999
1.719 -37.173 33.568001
2.477 -37.193001 33.083
3.237 -37.213001 32.601002
3.97 -37.228001 32.326
4.6999998 -37.241001 32.125999
5.4250002 -37.249001 32.106998
6.1469998 -37.252998 32.203999
6.8720002 -37.259998 32.195
7.5949998 -37.265999 32.249001
8.3319998 -37.276001 32.18
-19.539 -35.917 51.676998
-18.783001 -35.889 52.5
-18.027 -35.858002 53.464001
-17.275999 -35.838001 54.146
-16.530001 -35.827 54.573002
-15.788 -35.807999 55.073002
-15.051 -35.792 55.379002
-14.314 -35.776001 55.702999
-13.577 -35.764 55.907001
-12.842 -35.754002 56.033001
-12.11 -35.749001 56.02
-11.381 -35.749001 55.796001
-10.661 -35.775002 55.411999
-9.9370003 -35.796001 55.210999
-9.2150002 -35.821999 54.875999
-8.4969997 -35.855 54.299999
-7.7729998 -35.880001 54.022999
-7.0539999 -35.915001 53.471001
-6.3509998 -35.979 51.727001
-5.6529999 -36.018002 50.016998
-2.0929999 -36.299 37.466999
-1.341 -36.323002 36.799
-0.57599998 -36.354 35.719002
0.184 -36.376999 35.001999
0.93800002 -36.393002 34.591999
1.7029999 -36.418999 33.823002
2.4630001 -36.438999 33.298
3.2179999 -36.452999 33.011002
3.954 -36.472 32.573002
4.6859999 -36.487 32.289001
5.4099998 -36.494999 32.248001
6.1339998 -36.502998 32.237
6.8600001 -36.511002 32.167999
7.5819998 -36.518002 32.198002
8.3199997 -36.528999 32.074001
-19.542 -35.206001 51.312
-18.785999 -35.175999 52.203999
-18.032 -35.151001 52.967999
-17.282 -35.132 53.627998
-16.534 -35.118999 54.118
-15.795 -35.104 54.474998
-15.057 -35.084999 54.875
-14.32 -35.068001 55.198002
-13.585 -35.056999 55.356998
-12.852 -35.049 55.418999
-12.121 -35.044998 55.313
-11.391 -35.042999 55.146999
-10.667 -35.061001 54.951
-9.9449997 -35.081001 54.658001
-9.224 -35.106998 54.215
-8.5050001 -35.134998 53.681
-7.7820001 -35.158001 53.395
-7.0689998 -35.201 52.407001
-6.3709998 -35.264 50.506001
-1.362 -35.580002 36.983002
-0.59799999 -35.606998 35.958
0.162 -35.629002 35.216
0.91600001 -35.644001 34.792
1.679 -35.667 34.075001
2.4400001 -35.687 33.5
3.1949999 -35.701 33.192001
3.934 -35.717999 32.768002
4.671 -35.734001 32.422001
5.402 -35.744999 32.287998
6.132 -35.754002 32.223
6.8639998 -35.765999 32.039001
7.592 -35.772999 32.042
8.3319998 -35.784 31.931
-19.545 -34.493 51.000999
-18.788 -34.462002 51.923
-18.037001 -34.442001 52.534
-17.283001 -34.417 53.368
-16.539 -34.41 53.660999
-15.798 -34.390999 54.144001
-15.062 -34.375 54.415001
-14.327 -34.360001 54.676998
-13.59 -34.344002 55
-12.857 -34.337002 55.028
-12.126 -34.332001 54.960999
-11.398 -34.332001 54.675999
-10.673 -34.346001 54.509998
-9.9549999 -34.369999 53.944
-9.2329998 -34.389999 53.571999
-8.5150003 -34.416 52.988998
-7.796 -34.443001 52.409
-7.0879998 -34.487999 51.191002
-6.3870001 -34.528 49.662998
-5.6929998 -34.536999 48.007
-0.62199998 -34.860001 36.240002
0.13699999 -34.880001 35.525002
0.89499998 -34.896999 34.938999
1.659 -34.918999 34.181
2.4159999 -34.933998 33.743999
3.175 -34.951 33.257
3.9200001 -34.969002 32.775002
4.6589999 -34.983002 32.491001
5.3940001 -34.994999 32.331001
6.1300001 -35.006001 32.186001
6.868 -35.019001 31.962
7.6009998 -35.028 31.893
8.3450003 -35.040001 31.778
-20.327999 -33.814999 49.164001
-19.552 -33.792999 50.320999
-18.792 -33.754002 51.455002
-18.040001 -33.733002 52.110001
-17.291 -33.716999 52.630001
-16.542 -33.700001 53.259998
-15.803 -33.685001 53.575001
-15.067 -33.666 53.945999
-14.332 -33.650002 54.228001
-13.596 -33.636002 54.472
-12.864 -33.626999 54.534
-12.131 -33.618999 54.544998
-11.405 -33.620998 54.195
-10.683 -33.637001 53.818001
-9.9630003 -33.653999 53.379002
-9.2419996 -33.671001 52.970001
-8.5220003 -33.691002 52.470001
-7.8140001 -33.728001 51.327
-7.1009998 -33.757 50.492001
-6.4050002 -33.784 48.903999
-0.64399999 -34.115002 36.474998
0.114 -34.132 35.785
0.86900002 -34.146999 35.261002
1.637 -34.171001 34.327999
2.395 -34.186001 33.861
3.1530001 -34.201 33.396999
3.9030001 -34.219002 32.851002
4.6479998 -34.234001 32.504002
5.3860002 -34.244999 32.375
6.125 -34.256001 32.230999
6.869 -34.27 31.959999
7.6079998 -34.280998 31.843
-20.334999 -33.09 48.849998
-19.562 -33.082001 49.751999
-18.795 -33.043999 51.051998
-18.042999 -33.022999 51.702
-17.295 -33.008999 52.169998
-16.547001 -32.994999 52.654999
-15.807 -32.976002 53.113998
-15.073 -32.959 53.389
-14.337 -32.941002 53.721001
-13.604 -32.93 53.851002
-12.871 -32.919998 53.936001
-12.139 -32.910999 53.959
-11.412 -32.91 53.700001
-10.689 -32.919998 53.394001
-9.9689999 -32.935001 52.911999
-9.2489996 -32.949001 52.443001
-8.5360003 -32.973 51.596001
-7.8249998 -32.999001 50.688999
-7.1139998 -33.021 49.834
-6.428 -33.043999 48.016998
-0.66299999 -33.374001 36.554001
0.094999999 -33.389999 35.856998
0.84899998 -33.402 35.383999
1.6160001 -33.423 34.467999
2.378 -33.439999 33.828999
3.135 -33.452999 33.433998
3.891 -33.472 32.773998
4.6399999 -33.487 32.396
5.382 -33.498001 32.27
6.1259999 -33.508999 32.103001
6.8730001 -33.522999 31.870001
7.6160002 -33.535 31.733
-20.337999 -32.361 48.637001
-19.57 -32.356998 49.397999
-18.802 -32.344002 50.334999
-18.045 -32.310001 51.348999
-17.297001 -32.298 51.771
-16.549999 -32.285999 52.186001
-15.811 -32.268002 52.588001
-15.076 -32.248001 52.985001
-14.342 -32.231998 53.23
-13.607 -32.216999 53.470001
-12.875 -32.207001 53.534
-12.145 -32.200001 53.487
-11.417 -32.198002 53.23
-10.694 -32.203999 52.959999
-9.9759998 -32.216999 52.375
-9.2550001 -32.223999 51.999001
-8.5450001 -32.245998 51.034
-7.8299999 -32.258999 50.415001
-7.1290002 -32.278 49.293999
-6.4390001 -32.299 47.747002
0.077 -32.647999 35.882
0.83200002 -32.66 35.375
1.594 -32.675999 34.636002
2.362 -32.695 33.756001
3.119 -32.707001 33.345001
3.8759999 -32.723 32.780998
4.6329999 -32.740002 32.269001
5.3800001 -32.750999 32.126999
6.1269999 -32.763 31.981001
6.8790002 -32.778 31.704
-19.576 -31.629 49.116001
